# .PCD v0.7 - Point Cloud Data file format
VERSION 0.7
FIELDS x y z rgb
SIZE 4 4 4 4
TYPE F F F U
COUNT 1 1 1 1
WIDTH 1153
HEIGHT 1
VIEWPOINT 0 0 0 1 0 0 0
POINTS 1153
DATA ascii
0.53781319 2.3174322 3.1706562 4289110180
0.57543182 2.3099957 3.2112017 4286676098
0.53588629 2.3181944 3.165175 4283449670
0.55397791 2.3127699 3.1811068 4286608753
0.79290611 2.2774382 3.4419873 4283841581
0.79290611 2.2774382 3.4419873 4283841581
0.50259483 2.3223114 3.1180394 4283447091
0.60147887 2.3021774 3.2246385 4283513915
0.63329577 2.2953758 3.2531574 4282792779
0.54848659 2.3129277 3.1579249 4287066996
0.59652424 2.3110991 3.2096651 4283119157
0.4380922 2.3280172 3.0371697 4286085242
0.81979215 2.2788901 3.4475 4283648080
0.42346114 2.3366334 3.017266 4284104494
0.47931555 2.3081279 3.0758052 4286475871
0.835922 2.2775743 3.45895 4284106060
0.81020808 2.273757 3.4281006 4286802783
0.47040638 2.3162487 3.0576184 4284431414
0.5321306 2.2985532 3.123687 4286678163
0.5321306 2.2985532 3.123687 4286678163
0.96246594 2.2691691 3.5834692 4282854704
0.51958984 2.3133893 3.1067445 4285821031
0.91721368 2.269037 3.5323286 4284633942
0.62006587 2.2940781 3.2124195 4283446572
1.0286276 2.2674444 3.6473694 4286278767
0.61278808 2.2939682 3.1966002 4283450709
0.52821946 2.3032246 3.1054409 4285823373
0.96808565 2.2651761 3.5714014 4282855716
0.82113469 2.2651019 3.413065 4282658865
0.65914834 2.2713475 3.2359843 4288719542
0.67945689 2.2699218 3.2564745 4286941339
0.51890069 2.2948887 3.0789263 4283778100
0.46980295 2.3240154 3.0255845 4284700503
0.77186328 2.2702963 3.341254 4284700503
0.61219418 2.2845213 3.1720891 4285426029
0.50136113 2.3043425 3.0530908 4286604887
0.92321825 2.2604969 3.497719 4284369242
0.51402557 2.297718 3.0654519 4286608504
0.59952539 2.2896297 3.1555533 4279899420
0.59952539 2.2896297 3.1555533 4287268487
0.4997296 2.3054216 3.0494685 4284302384
0.70655054 2.26371 3.2648239 4285818216
0.48712647 2.3136377 3.028224 4285033589
0.74153036 2.2664905 3.2902458 4288718769
0.91805351 2.2580633 3.4740021 4287008147
0.62407106 2.2679486 3.1655526 4283384120
0.52971733 2.2944472 3.0648289 4281606690
0.5154953 2.2989743 3.0492165 4285163376
0.88398552 2.2656863 3.4329658 4282990659
0.95347089 2.2468438 3.5041361 4285948238
0.69492626 2.263308 3.2336237 4285755775
0.64882648 2.2635717 3.1773009 4283905583
0.50910401 2.3102772 3.0274966 4287331206
0.50048792 2.3020291 3.0181456 4287331206
0.64164782 2.2659795 3.1621504 4285620562
0.5231427 2.2986307 3.0383379 4284375135
0.58832878 2.2758832 3.1033523 4282068787
0.9397347 2.244041 3.4666672 4284507248
0.54189181 2.2928357 3.0531616 4286743956
0.5696823 2.2862141 3.0818975 4284369471
0.59473228 2.2660656 3.0990801 4284106824
0.78481585 2.2571263 3.2916665 4282656805
0.59454095 2.2662904 3.0934911 4285687661
0.60527706 2.2581584 3.0978937 4280689703
0.59869069 2.2566621 3.0909512 4286149495
0.58617467 2.2776854 3.0759163 4285224531
0.60189331 2.2696211 3.0857687 4283316542
0.68172222 2.2580445 3.164444 4282396206
0.87505144 2.2523444 3.3610833 4282856753
0.59858984 2.2681136 3.077213 4283577386
0.60463488 2.2612672 3.0781302 4283318602
0.80208188 2.2499368 3.2763307 4280557349
0.89040452 2.2417142 3.3654239 4282989111
0.61669332 2.2582753 3.0861459 4283974726
0.91113597 2.2457449 3.3832295 4286541428
0.61301219 2.2669511 3.0727828 4286808971
0.62464952 2.2640829 3.0794067 4287001213
0.77354795 2.2485313 3.2253404 4284632378
0.77182269 2.2465122 3.2214 4284106552
0.67004222 2.2565167 3.1191552 4281411368
0.62210739 2.2643752 3.0629959 4282855983
0.80111855 2.2418361 3.23913 4287005061
0.6418218 2.2511466 3.0769067 4287596688
0.75436282 2.2502449 3.1885355 4283909174
0.64193845 2.2508357 3.0752866 4282000925
0.88524103 2.2456081 3.3170033 4285687148
0.63029349 2.265672 3.0614438 4286149755
0.84808499 2.2396243 3.2752759 4286737770
0.63941514 2.2520957 3.0665069 4287070856
0.87367558 2.2388549 3.2945881 4282396196
0.79463309 2.2418118 3.2073197 4281934629
0.65955007 2.2470412 3.0677366 4285490534
0.66317898 2.2427294 3.055804 4285490534
0.81226975 2.2375188 3.2010019 4284830797
0.68126166 2.240906 3.0700278 4282133030
0.68226433 2.2408023 3.0660784 4285889150
0.68699318 2.2433865 3.0550003 4286210909
0.77339119 2.2308815 3.1326947 4285558906
0.69724131 2.2375684 3.0570087 4286211424
0.64408481 2.2640929 3.005528 4285821817
0.64904958 2.2669415 3.0080211 4282001698
0.70616347 2.2393048 3.0608768 4285687661
0.81232965 2.230186 3.1624646 4283053362
0.7003479 2.2493274 3.0513911 4285096037
0.68609565 2.2377543 3.033222 4286674295
0.7170409 2.2372904 3.0546405 4286474851
0.64858592 2.2721598 2.9869664 4282658085
0.72731709 2.237375 3.0595837 4288186239
0.80874377 2.2279818 3.136656 4285816151
0.64444244 2.2774363 2.9778156 4286934120
0.6581586 2.2623794 2.9879484 4282065184
0.72143775 2.2370455 3.0464633 4284962383
0.73669362 2.2285156 3.0539224 4286539361
0.87245983 2.2233045 3.1802847 4284041795
0.67518157 2.2637851 2.9920969 4284041795
0.67068475 2.2670557 2.9800484 4285552977
0.74813563 2.2274387 3.0518954 4286739058
0.73449755 2.2396162 3.0365496 4282986799
0.74557823 2.2284665 3.0464692 4282462248
0.88042396 2.2191691 3.1717925 4285879891
0.75455266 2.2229719 3.0498388 4281537802
0.67463046 2.2742612 2.9729424 4286143576
0.716524 2.2580771 3.0055122 4287136647
0.75096881 2.2387736 3.0370462 4283578928
0.75096881 2.2387736 3.0370462 4284826158
0.71416897 2.2624447 3.0002711 4282591011
0.70393968 2.2620592 2.9895093 4284961359
0.89799565 2.2176783 3.1679277 4285817692
0.91914636 2.2002389 3.1805112 4284038440
0.77006584 2.234483 3.040128 4281933586
0.88072145 2.2114451 3.134762 4286212714
0.77992076 2.2181625 3.0416391 4283909433
0.76319152 2.2239933 3.0243101 4286409064
0.77694333 2.2368524 3.033118 4284765004
0.77136302 2.2231779 3.0279202 4285554784
0.78480709 2.2154489 3.032943 4283248934
0.86672169 2.2096593 3.107152 4284768341
0.78791559 2.216373 3.032093 4283646259
0.9025448 2.2037745 3.1361468 4283646259
0.80654615 2.2095382 3.0484271 4282990136
0.90645492 2.204736 3.1365292 4283642914
0.77861983 2.2148955 3.019084 4284764490
0.7568391 2.2466745 2.9946566 4280094728
0.94721609 2.2031324 3.1652362 4282197021
0.90423912 2.205544 3.1180434 4285818469
0.80246913 2.2169085 3.0208514 4285688424
0.889498 2.2072456 3.0913918 4282066720
0.93190682 2.2001274 3.1293581 4283119919
0.92940539 2.1971591 3.1267872 4281541925
0.80680722 2.2277834 3.0139632 4286675065
0.82180113 2.2180724 3.0200081 4286345328
0.80763894 2.2307541 3.0066938 4287069823
0.75045532 2.2303147 2.9552658 4284764491
0.83158535 2.2001431 3.0217416 4284697670
0.90343982 2.1985557 3.0815709 4285093458
0.8278259 2.2205575 3.0141587 4282002727
0.85485059 2.1958647 3.0379827 4286014306
0.98140675 2.194536 3.1463974 4283515188
0.90822208 2.1965611 3.0790021 4286085501
0.99837816 2.1684012 3.1512835 4281410588
0.83373249 2.2098732 3.0061924 4284242525
0.85428089 2.2064247 3.022398 4284435274
1.0074648 2.1526282 3.1540804 4284238149
0.84275669 2.2150943 3.0073695 4282659117
0.99505335 2.1822553 3.12731 4281738266
1.0166575 2.1853778 3.1458638 4284698706
0.93460512 2.193289 3.0734043 4283709231
1.0044366 2.180367 3.1331108 4286934379
0.97001255 2.1847429 3.1010268 4285955974
0.84759152 2.2198737 2.9937508 4282856743
0.77927834 2.2431273 2.9342153 4285027405
0.80572289 2.2360344 2.9561837 4284304191
0.90144229 2.1942773 3.0361822 4286349703
1.0242071 2.1950717 3.1418171 4280160523
1.0010571 2.1889856 3.1192677 4282328871
0.86913133 2.1988037 2.9978676 4286606437
0.85977989 2.2027755 2.9889636 4280619795
1.0358871 2.1790707 3.1404858 4282724910
0.89653629 2.1931639 3.0184674 4284371011
0.88023037 2.1929567 3.0033484 4282987818
0.88132018 2.1930747 3.0020244 4285428074
0.93207431 2.1899753 3.0439696 4283974967
0.93207431 2.1899753 3.0439696 4285818210
1.037659 2.179575 3.1327329 4285161826
0.88288277 2.2075205 2.999336 4283248420
0.83392513 2.23066 2.9570374 4282854173
0.84315604 2.2310991 2.9592357 4286149495
0.88795853 2.1927383 2.9914112 4284371011
0.88418162 2.1953292 2.9846506 4283976515
0.88775098 2.1927989 2.9867156 4281934883
0.90968305 2.1863527 3.0006485 4282068517
0.89106667 2.2073495 2.9784687 4283448622
0.86933589 2.2206895 2.947176 4283844426
1.0297713 2.1725452 3.0760148 4286408288
0.86439389 2.225832 2.9355004 4286408288
0.91547322 2.1903923 2.9781604 4284767840
0.92286998 2.1883924 2.9834955 4284767840
0.92528856 2.1793399 2.9843211 4283117856
1.0641506 2.1555741 3.0932834 4282658855
1.0517703 2.1723516 3.0824366 4283711545
0.99315524 2.1747029 3.0300531 4283251511
0.93214518 2.1899388 2.9765172 4282066467
0.9630388 2.1757197 3.0019412 4282924078
1.0065255 2.1724432 3.0348337 4282264869
1.0606005 2.1672714 3.0767097 4285361776
0.86465055 2.2159944 2.913985 4285032026
1.0177568 2.1663864 3.0398169 4283712830
0.93097413 2.1757045 2.9675293 4283844928
0.87449455 2.2180574 2.9160957 4284561444
0.94276541 2.1813364 2.9685681 4282989362
0.95382631 2.1906378 2.9761999 4282462767
0.95818132 2.1723137 2.9746737 4286936438
0.96267265 2.1706631 2.9760449 4284106299
0.972655 2.1660714 2.9788105 4284040510
0.89994729 2.2092371 2.9170356 4285427312
0.95738286 2.1813207 2.9607601 4283514423
1.11291 2.1520467 3.0871108 4284635482
0.97038329 2.1679599 2.9697497 4286479485
0.97802305 2.1717505 2.964056 4285028690
0.97383362 2.1722193 2.9603474 4281473811
1.0575397 2.1578262 3.0263929 4285030494
1.0584095 2.1580067 3.0260334 4283054124
1.1070499 2.1510363 3.0632117 4281473811
1.0768157 2.1556828 3.038681 4283383602
0.90019983 2.2138338 2.8941391 4283909692
0.89709181 2.2113321 2.8914411 4287398016
1.1467339 2.1479247 3.0907302 4286872446
1.1478219 2.1491716 3.0910041 4285164148
1.1267494 2.1507177 3.0691252 4284497971
1.0891991 2.1532142 3.0332923 4282003492
0.99107552 2.1726441 2.9540172 4283055153
1.0942144 2.15381 3.0338633 4286544510
0.96154511 2.1997058 2.9242623 4282267704
1.144154 2.1503692 3.0690892 4281741097
1.0064445 2.1564217 2.9561 4284569943
0.8925606 2.2227056 2.8648484 4284569943
1.0088876 2.1579378 2.9570451 4285555289
1.0867207 2.1505029 3.0173612 4285226584
0.94285578 2.2044146 2.8978872 4283842100
1.0108012 2.1676533 2.9516962 4283842100
1.1802804 2.1379569 3.0865142 4283316520
1.1657372 2.1403224 3.0677223 4283316520
1.1529833 2.1407359 3.0556951 4283318585
1.0328156 2.1555035 2.9556479 4284699211
1.1846963 2.1305268 3.0757048 4283055929
1.0345347 2.1563609 2.9563627 4284238659
1.1098216 2.1463356 3.0053427 4284173644
1.0332458 2.1650107 2.9449847 4284568651
1.0420194 2.1603022 2.9487572 4287400336
1.2028635 2.1434517 3.0727398 4283839012
1.0425848 2.1489966 2.9459448 4287400336
1.0464586 2.1600871 2.9400501 4285028690
1.2067002 2.1310115 3.0622938 4282264097
1.1934083 2.1369071 3.0512812 4282135091
1.0461988 2.1713552 2.9249566 4282131995
1.0672169 2.1438942 2.940659 4284961862
1.0582082 2.1459405 2.9331748 4283385922
1.0781808 2.1552138 2.9414196 4286808454
1.2233753 2.1257625 3.0520425 4282725412
1.2443084 2.1209617 3.0592015 4286808454
1.080467 2.1379762 2.9326665 4284900453
1.2378845 2.1304588 3.0527372 4282989620
1.0827544 2.1387322 2.9336829 4281346085
1.0788975 2.1522515 2.9303639 4282396445
1.090498 2.1516149 2.936645 4286151035
1.1722107 2.1234651 2.9962311 4283253821
1.0975206 2.1342032 2.936172 4283778357
1.0998986 2.1417441 2.9263844 4283449911
1.0924382 2.1493073 2.9191422 4283252029
1.2634788 2.0966868 3.047466 4286545282
0.96130276 2.1993594 2.8173218 4281740584
1.268178 2.0981116 3.0481641 4281740584
1.0317614 2.1734016 2.8608377 4284370495
1.1366494 2.1294506 2.9355416 4283711543
1.1329203 2.1281314 2.9270205 4286545280
1.2961209 2.0664561 3.0429919 4284238909
1.1370343 2.1182621 2.9173303 4286545280
1.2994202 2.1031706 3.037147 4283253562
1.1472709 2.1270843 2.9015844 4283123267
1.1868395 2.1116738 2.9231269 4283780165
1.1591606 2.1183269 2.9000916 4284571750
1.3387511 2.0934727 3.0272522 4281740069
1.1229359 2.1595993 2.8685849 4282266150
1.1012813 2.1512713 2.8523128 4279701514
1.1722484 2.1110957 2.9033928 4282130193
1.2880176 2.095469 2.9855001 4279701514
1.1551663 2.1312194 2.8887594 4282657305
1.2387902 2.1041276 2.9439642 4286744199
1.1834292 2.1202316 2.8954666 4287007371
1.3136402 2.0914178 2.9858999 4281674276
1.1765481 2.1292088 2.8852701 4285164390
1.2406433 2.0980403 2.921567 4285557081
1.2003473 2.1003516 2.8888805 4282529836
1.2733101 2.098433 2.9385543 4285556065
1.1183872 2.1585515 2.8214929 4281741360
1.207543 2.1139135 2.8841586 4285885784
1.3208637 2.0860233 2.963068 4284959551
1.2374194 2.0957792 2.8976035 4285154870
1.2195927 2.1101401 2.8839571 4286807682
1.2344981 2.0941434 2.8840396 4286151031
1.2200888 2.1197765 2.8734117 4283186486
1.2458194 2.0894458 2.8878896 4285753704
1.1337484 2.144336 2.8079414 4281805094
1.1663893 2.145632 2.8303092 4284374622
1.4226556 2.0680683 3.0089307 4286344552
1.2652088 2.0879357 2.8931684 4286544502
1.2559671 2.0872598 2.8758833 4286083952
1.2527018 2.1009967 2.8725564 4283980116
1.4355035 2.0700138 2.9966905 4285024313
1.4599991 2.0583775 3.0003402 4282594351
1.2647269 2.0796247 2.8653767 4286151544
1.2875195 2.0778685 2.8767862 4285887602
1.4230828 2.0662277 2.968106 4282134059
1.2658831 2.0808713 2.8553505 4288322204
1.2205768 2.120116 2.8198149 4286147686
1.2756894 2.0865803 2.8571322 4286480000
1.2283759 2.1312499 2.8222866 4284693810
1.1787019 2.1275373 2.7863617 4282657307
1.5291982 2.0450974 3.0190766 4284369976
1.2947689 2.0747209 2.8583868 4285230958
1.2009306 2.1415372 2.7931235 4287991956
1.2905192 2.0848291 2.8496919 4282397233
1.3119568 2.0714409 2.8608136 4284767824
1.3140852 2.0729873 2.8570883 4284633656
1.3166541 2.063555 2.8550677 4287400073
1.3063496 2.0735028 2.8457458 4283914582
1.2762027 2.1036835 2.8207436 4284571221
1.2570865 2.1112754 2.8034661 4281740843
1.3234562 2.084434 2.8463869 4283907115
1.2228374 2.1441069 2.7779608 4281740843
1.3247414 2.0741477 2.8431273 4284892468
1.3248514 2.0742042 2.8431633 4284366126
1.282856 2.1025391 2.8109958 4282330914
1.3406017 2.0616896 2.8462377 4286084979
1.2684515 2.10377 2.7948256 4284300331
1.3626697 2.0619109 2.8563163 4282991164
1.3740823 2.072695 2.8435514 4285623658
1.3735169 2.0595026 2.8301322 4286610553
1.3760206 2.0480042 2.8282783 4285098086
1.2186657 2.1542411 2.7213035 4282991680
1.3603311 2.073226 2.7856231 4284569432
1.2368944 2.1579022 2.7039783 4284762172
1.2454865 2.1580141 2.694196 4283516993
1.2688718 2.1394448 2.7084038 4283118375
1.2790827 2.1335371 2.7012198 4281412648
1.3899415 2.0798433 2.7442379 4281412648
1.4427859 2.0601113 2.7451239 4283054132
1.4628816 2.0585804 2.7339327 4285953652
1.4282925 2.0884869 2.6984599 4284628528
1.3637052 2.1136324 2.6406934 4283715916
1.5447284 2.0756133 2.6652656 4282596923
1.4718926 2.1089485 2.6183667 4282201394
1.5094709 2.104192 2.6190908 4287399811
1.5259103 2.0864995 2.6016808 4284630060
1.5324211 2.0893555 2.5980408 4283579965
1.5715473 2.0754809 2.6062732 4284628266
1.5630646 2.0733619 2.594954 4283773221
1.536256 2.0891676 2.5771887 4286079313
0.76914829 2.4519289 4.1379743 4283907115
0.81074554 2.4375658 4.1472163 4283384896
0.73850733 2.4481292 4.0708957 4284103729
0.787256 2.4319313 4.0993938 4282921511
0.76326495 2.4411316 4.0701251 4283842098
0.82937288 2.4274657 4.122932 4283774767
0.79739571 2.4311495 4.0920005 4284170813
0.72120196 2.4416597 4.0243435 4283380260
0.76754361 2.4352727 4.0467634 4284301619
0.73420912 2.4297705 4.0088143 4284103213
0.72304684 2.436347 3.9919984 4284431919
0.82703674 2.4110367 4.0728703 4287599255
0.8174628 2.4222929 4.0576248 4287665052
0.82114017 2.4256916 4.0602036 4287795596
0.81701159 2.3906081 4.0540023 4285618260
0.7566421 2.4196093 4.0031261 4286014817
0.84272891 2.3968024 4.0616732 4285291096
0.83884221 2.4199378 4.0576086 4284238410
0.80271155 2.4129066 4.0178514 4283315764
0.70555395 2.4322567 3.9391577 4282528568
0.7951721 2.4147141 4.0082731 4285553755
0.76134145 2.4091432 3.9783862 4285224529
0.82533425 2.4032633 4.0277238 4284171851
0.84978402 2.3941157 4.0372882 4283513396
0.71813685 2.4244332 3.929692 4285619791
0.80288601 2.3999467 3.9737291 4285293919
0.87857842 2.3736901 4.017252 4282266427
0.79998273 2.3915093 3.9555845 4282266427
0.81592637 2.3861687 3.9670131 4286079321
0.77493531 2.3863764 3.9256415 4285881431
0.78744107 2.3926787 3.9314399 4283578676
0.88922489 2.374177 4.0080814 4285489504
0.74959022 2.4026451 3.9001956 4282004033
0.73303837 2.4134083 3.887176 4286671712
0.71759021 2.4065924 3.8698945 4282727238
0.83705503 2.3833408 3.9611132 4283120428
0.78847528 2.3797402 3.923069 4286143564
0.7897265 2.3805618 3.9236207 4284831572
0.74433786 2.3940368 3.8832715 4283709492
0.86412787 2.3705394 3.9709713 4285949269
0.79324573 2.3853545 3.9064009 4282661181
0.78918195 2.3843892 3.9025519 4287197024
0.77780145 2.3946519 3.8919597 4283384898
0.76543039 2.3959084 3.8754032 4286672990
0.71913183 2.3966343 3.8396058 4286672990
0.79848927 2.3783777 3.8982313 4288187532
0.79848927 2.3783777 3.8982313 4284041548
0.73286122 2.3956811 3.842838 4285816151
0.86808705 2.3532982 3.9424677 4285290322
0.72686934 2.3927555 3.8348141 4286476918
0.90284222 2.3405626 3.9643764 4284302912
0.72360694 2.4018571 3.8283925 4284302912
0.788984 2.369663 3.872849 4282335568
0.88033044 2.3494148 3.9375281 4284633936
0.84761542 2.3619289 3.9064851 4283776315
0.79470831 2.3748858 3.8670261 4283776315
0.76256943 2.3713579 3.841851 4287067746
0.76256943 2.3713579 3.841851 4286017135
0.86403435 2.3488877 3.9146867 4283647300
0.77508372 2.3742089 3.8465197 4285752674
0.7509442 2.3844991 3.8279262 4285752674
0.85865736 2.3537881 3.9045422 4282662723
0.80074513 2.3700256 3.8575642 4283911252
0.71735865 2.3996844 3.7927878 4283385417
0.80474675 2.3690169 3.8560219 4285950825
0.77125347 2.3769433 3.8311145 4283515715
0.8742696 2.3445497 3.9068012 4283646787
0.67957616 2.3961246 3.7600052 4288648859
0.6371966 2.4094543 3.7282739 4287331973
0.64259601 2.4005473 3.7314506 4282661694
0.64259601 2.4005473 3.7314506 4283646263
0.71305752 2.3897376 3.7808833 4283646263
0.7011835 2.3952327 3.7643478 4283319113
0.72631925 2.3920782 3.7812946 4283646263
0.77947539 2.3675718 3.8193033 4285487435
0.6313718 2.4077067 3.711184 4283318602
0.74759698 2.3688912 3.7942724 4285621605
0.74759698 2.3688912 3.7942724 4283120697
0.77754521 2.3675613 3.8144512 4286805879
0.86521977 2.345856 3.8770804 4283712313
0.98827207 2.3262856 3.9653971 4286738544
0.71953678 2.3676567 3.768595 4285357659
0.74517554 2.3894897 3.7876003 4286141765
0.86983937 2.3285472 3.8772161 4283708974
0.83000702 2.3572726 3.8469086 4283708974
0.73154843 2.3749192 3.7735415 4281872958
0.81095248 2.3541727 3.8260958 4283645499
0.76343834 2.3655994 3.786669 4281939521
0.79000354 2.3644326 3.8052998 4284501578
0.74986237 2.3872769 3.7755384 4285485634
0.82616723 2.3503685 3.8277826 4284041797
0.71466434 2.3874753 3.7472613 4284041797
0.70739251 2.3902168 3.7396622 4283186749
0.85269505 2.3234622 3.8349025 4289899443
0.8265177 2.343339 3.8160522 4283781976
0.67993212 2.375551 3.7094462 4285815110
0.83382601 2.3456562 3.8193908 4285159498
0.78351724 2.3615041 3.7819943 4285420364
0.82224774 2.3502429 3.8095319 4287201152
0.85389489 2.3261662 3.829591 4285815110
0.81476355 2.3530116 3.7995811 4285949545
0.81476355 2.3530116 3.7995811 4285687400
0.70917279 2.3874624 3.7210739 4286541155
0.78739125 2.3485534 3.7761483 4285683522
1.0718293 2.3158913 3.978529 4286410353
0.98345804 2.3193047 3.9150138 4282005314
0.65107942 2.3979881 3.6781218 4282726974
1.0204396 2.3112555 3.9399581 4285485642
0.65492654 2.3904486 3.6779265 4282397498
0.72414309 2.3737381 3.7237389 4282597184
0.73656017 2.3688951 3.7306533 4283515463
0.83995992 2.3300509 3.8026807 4285621605
0.71730971 2.37481 3.7137523 4284436052
0.82442313 2.3451037 3.7854187 4284893766
0.68965805 2.3864954 3.689966 4286475887
0.64653158 2.3916414 3.6592829 4286475887
0.78968352 2.3497567 3.7588942 4282071615
0.74346244 2.3583403 3.7251887 4286805616
0.84545833 2.3227322 3.7954369 4285559925
0.76504815 2.3548524 3.7379003 4284635735
0.62602848 2.3981526 3.6393156 4285489001
0.79306823 2.3450832 3.7498202 4286612621
1.082696 2.3004148 3.9528832 4285291613
1.0414424 2.312237 3.9235983 4286801745
0.74397308 2.3591323 3.7131102 4283512632
0.79145098 2.3471794 3.7453666 4288584093
0.65289086 2.3868713 3.6479383 4284566850
0.87827694 2.3189464 3.8050015 4284765021
0.90585822 2.3188837 3.8233364 4284502609
0.84543723 2.324214 3.7801335 4284239954
0.81060529 2.3405979 3.7554111 4283910470
0.87445211 2.3155105 3.7998202 4286015848
0.70468909 2.3702557 3.6808126 4287069823
1.0094365 2.3027425 3.8934133 4284829521
0.80888271 2.3394074 3.7513454 4283578676
0.70557731 2.3713293 3.6767888 4287199612
0.83539432 2.3427131 3.7651505 4285558385
0.82701749 2.3307955 3.7578499 4287337627
0.67012852 2.3756354 3.6488054 4284699476
0.78550905 2.3327367 3.7273209 4287726207
0.7495597 2.3528979 3.7020299 4285817181
0.71062821 2.3578746 3.673393 4284435534
0.65260053 2.3765643 3.6307898 4286540650
0.7745983 2.3459582 3.7150426 4284967535
1.0728854 2.2974081 3.9221504 4284698700
0.72161388 2.3543468 3.6776288 4284435534
0.85146725 2.3163335 3.76735 4287727220
0.71187854 2.3543577 3.6695023 4286546569
0.72194117 2.3549464 3.6758955 4284698700
0.79684561 2.3348303 3.727375 4287792750
0.59931087 2.3999898 3.5879638 4288650656
1.0347804 2.3024385 3.8837554 4287861913
1.0671675 2.2946856 3.9057167 4282398011
0.67239767 2.3804233 3.6302915 4284238908
0.72984374 2.3569984 3.6691055 4286672490
0.75927866 2.34094 3.6878562 4283118630
0.70707798 2.3576446 3.6493404 4282462513
0.78195494 2.3429148 3.6992195 4284568403
0.78195494 2.3429148 3.6992195 4284969079
0.80681318 2.3149099 3.7124989 4283778376
0.62927359 2.3830533 3.5849228 4287073424
0.72224432 2.3408494 3.6455069 4282987831
0.75477904 2.3406353 3.6649566 4283778376
0.75477904 2.3406353 3.6649566 4284304453
0.63451487 2.3704081 3.581912 4287856500
0.9689194 2.3030236 3.8070164 4288322463
0.79448509 2.3163636 3.6879616 4287074968
0.79714787 2.305202 3.6884234 4283714130
0.81660706 2.316601 3.7013597 4282265398
0.78274316 2.3163905 3.6738665 4283844169
0.78554833 2.3249915 3.6731775 4282988339
0.61336142 2.3746355 3.5567439 4287463292
0.91595048 2.3050668 3.7574539 4287463292
0.71843106 2.3552537 3.6221943 4285688944
0.67706263 2.3480005 3.5939791 4287133552
0.7598235 2.3367023 3.6496646 4286147171
0.76185644 2.3377852 3.6507976 4284369743
0.93607724 2.3032494 3.7657623 4284369743
0.6031639 2.3836138 3.5397773 4282923326
0.8879512 2.3074291 3.7301533 4282597182
0.69932455 2.3506179 3.6033409 4290556335
0.65660685 2.3523135 3.5722053 4285951092
0.65660685 2.3523135 3.5722053 4287137164
0.78459233 2.315259 3.6555009 4284962907
1.0654234 2.2846463 3.8434048 4288647065
0.98457444 2.2918458 3.7890451 4285421918
0.77483368 2.3213422 3.6436453 4282463291
0.76575339 2.3285363 3.6359303 4283120697
0.76456505 2.3282747 3.6344924 4283118630
0.84040982 2.3100598 3.6835392 4288317315
0.68907946 2.3473978 3.5818462 4288317315
0.68907946 2.3473978 3.5818462 4282792771
0.69576216 2.3498666 3.5844181 4286146405
0.92027336 2.304291 3.7334223 4285160537
0.70383859 2.3511748 3.5888026 4285814868
0.80130839 2.307234 3.6478879 4287462514
0.80086201 2.3054781 3.6442399 4287462514
0.89645314 2.3004193 3.7057757 4288055182
1.0357847 2.2893376 3.7972341 4286544764
0.69709182 2.3564758 3.5730433 4286874758
0.69803405 2.3363161 3.5729692 4286542711
0.77470136 2.3125131 3.6206753 4283252029
0.77335209 2.3143382 3.6191587 4283317823
0.77824551 2.3268309 3.6211295 4285890183
1.00914 2.289427 3.7721236 4285554268
0.62391537 2.3682699 3.5182779 4285554268
0.71856678 2.3447876 3.580339 4285554268
0.84571505 2.3019106 3.662313 4283583073
0.98184347 2.300334 3.7495 4283185718
0.66886103 2.348388 3.5433576 4284435025
0.97359252 2.2854989 3.7415342 4285553504
0.96466488 2.2912161 3.7350688 4286545031
0.98975945 2.2859197 3.7513852 4286870631
0.571778 2.379632 3.4762797 4285158736
0.571778 2.379632 3.4762797 4283712830
0.77054381 2.3036427 3.6052275 4290093987
0.66163814 2.3602138 3.5345612 4287002231
0.56612676 2.3633168 3.4711607 4287594881
0.60036415 2.371624 3.4931378 4285225291
0.68211353 2.3460164 3.5414476 4283581497
0.75279135 2.3037267 3.5848765 4283712830
0.95208651 2.2915423 3.7150197 4286546828
0.59307355 2.3672101 3.4807844 4288519329
0.67014527 2.3413579 3.5276961 4282922540
1.0051407 2.2863932 3.7436302 4285753706
0.57362598 2.3638194 3.4625154 4289178542
0.68270373 2.3424613 3.5289309 4287462781
0.7307508 2.3294764 3.5592661 4283248423
0.73374778 2.3306234 3.5604756 4283248423
0.72676271 2.3138366 3.5519583 4285553244
0.80369395 2.303436 3.6015193 4287331172
0.72920543 2.3157339 3.5531964 4285420126
0.87338436 2.2989504 3.6437042 4286212968
0.75984371 2.3024728 3.5675986 4285093969
0.7607795 2.3130119 3.5684173 4287396211
0.66303062 2.3486629 3.5055025 4284108627
0.69175863 2.3381045 3.5214193 4286081380
0.90624815 2.2956843 3.6576052 4284040776
1.0158727 2.2851448 3.7281294 4284567112
0.66294825 2.3483884 3.4996805 4285554015
0.6945644 2.3301113 3.514426 4282725688
1.0120076 2.275809 3.717247 4285753191
0.7129125 2.3268099 3.5239396 4285753191
1.0364161 2.2643411 3.7302763 4282661183
0.66536349 2.3415742 3.4927788 4286476916
0.74380833 2.3075385 3.5417144 4282661183
0.73897207 2.3125069 3.5376425 4286743950
0.67643785 2.3388166 3.4973857 4284962131
0.63407135 2.3493373 3.4651811 4287528828
0.91606295 2.2908623 3.6439109 4284172353
0.98818833 2.2774944 3.689214 4285094747
0.55454046 2.3754504 3.4135652 4284373084
0.59690577 2.3599246 3.4392893 4284106309
0.67025179 2.3367155 3.4845202 4283842098
0.67025179 2.3367155 3.4845202 4285686883
0.87501055 2.2957625 3.6139731 4285883750
0.74641198 2.3010881 3.5312536 4283843140
0.93408346 2.2850833 3.6504006 4280949788
0.68305695 2.3271234 3.4911096 4285751134
0.71386993 2.324012 3.5099773 4286410347
0.88706589 2.2904913 3.618211 4287595656
0.89007294 2.2907956 3.6190982 4283185718
0.73081064 2.3013926 3.5159049 4287000942
0.73378116 2.3020468 3.5141966 4286414215
0.77009559 2.2964358 3.5339193 4286740601
0.7680344 2.2963984 3.5320578 4283774767
0.7972275 2.2980597 3.5483005 4282461476
0.64629018 2.344481 3.4532201 4283776063
0.62779707 2.3475337 3.4392991 4283776063
0.8407318 2.2902308 3.57217 4285623157
0.68565708 2.3348629 3.4746516 4286408027
0.80951989 2.2913184 3.5491915 4285885299
0.67092174 2.3374972 3.4614995 4286606958
0.94409597 2.2839296 3.6318243 4286870647
0.6835199 2.3352158 3.4689271 4282531915
1.0086603 2.2688456 3.670821 4282531915
0.70878661 2.3184071 3.4827201 4289238676
0.59303087 2.3518238 3.4100797 4289041295
0.59303087 2.3518238 3.4100797 4285156941
0.82882625 2.2917881 3.5564854 4285156941
0.80675149 2.2911291 3.5425465 4284699737
0.86456048 2.2865515 3.5779471 4283840033
0.81482142 2.2921107 3.5458074 4287134054
0.7162863 2.296273 3.4831705 4285886582
0.61028099 2.3618522 3.4177678 4288120197
0.61028099 2.3618522 3.4177678 4287727503
0.78065968 2.2944088 3.5202019 4284107074
0.99255979 2.2748556 3.6522443 4285887612
0.69602072 2.3172393 3.4669311 4283646790
0.67695123 2.3244174 3.4547834 4280556570
0.69929063 2.3199863 3.4673793 4286934377
0.64369053 2.330255 3.4311249 4282002994
0.70333117 2.3096235 3.4646835 4282002994
0.63430429 2.3402367 3.4218843 4285292901
0.57168621 2.3626556 3.3830032 4288385433
0.57168621 2.3626556 3.3830032 4284306786
0.82866353 2.2860193 3.5399849 4287003780
0.75262499 2.3012533 3.4919963 4287927442
0.63225591 2.3380771 3.4169185 4281674025
0.74950999 2.2961979 3.4883199 4281674025
0.71664619 2.3172026 3.4682024 4284895835
0.7893154 2.2931561 3.5117865 4286147951
0.78389394 2.2906556 3.5065312 4286870128
0.96806937 2.2757127 3.6157253 4284239429
0.74791205 2.2937822 3.4775257 4286870128
0.99699003 2.2884393 3.6311905 4283315512
0.68103051 2.3205278 3.4366333 4287335283
1.0020261 2.2482448 3.6325502 4282857525
0.81246084 2.2876122 3.5154507 4283118888
0.68283892 2.3211672 3.4338748 4286408813
0.70372075 2.3127251 3.4457588 4286408813
0.69062215 2.3144345 3.4372425 4285422429
0.98756522 2.2725012 3.6186934 4283845706
1.0011271 2.282239 3.6271317 4283776566
0.63352215 2.331455 3.400244 4284569432
0.93985921 2.2732823 3.5866208 4282857525
0.68657136 2.3141811 3.431602 4287857540
0.70733994 2.3059497 3.4417627 4286812294
0.62859446 2.3292742 3.3911142 4287330681
0.87970233 2.279953 3.542846 4284243814
0.68891299 2.3182364 3.4250214 4285294964
0.92829514 2.2704999 3.5688555 4285362808
0.75640184 2.2881591 3.4638464 4284237897
0.69123197 2.2917428 3.4239824 4279703076
0.71167284 2.2954466 3.4352863 4285091916
0.63854223 2.3300185 3.391367 4282395440
0.70693356 2.2951419 3.4304042 4283515201
0.66224599 2.3214898 3.4032199 4287329139
0.94616008 2.2662868 3.5727093 4286611845
0.73280734 2.2913518 3.4434047 4286349188
0.49602613 2.3613834 3.3007147 4285617489
0.97619915 2.2520013 3.580874 4284833128
0.58306807 2.3508732 3.3450429 4286802541
0.58306807 2.3508732 3.3450429 4287201160
0.79060012 2.2828944 3.4682548 4282854962
0.74291068 2.2864647 3.4391272 4280843458
0.74291068 2.2864647 3.4391272 4286608514
0.97369492 2.2673869 3.5754836 4287065981
0.72783852 2.2881262 3.4273705 4286546831
0.62213767 2.3374591 3.3635614 4287269524
0.71356082 2.2973194 3.4171138 4286019708
0.59999532 2.3334808 3.349308 4290624959
0.69737715 2.292475 3.406224 4283184697
0.64417863 2.3283162 3.3730795 4288323231
0.84179205 2.2703669 3.4893966 4286540391
0.68900776 2.3137956 3.3974836 4285098096
0.91949809 2.269624 3.5341203 4282992460
0.60769761 2.3193419 3.3414145 4286670930
0.63846493 2.3132365 3.3585746 4280096799
0.70210719 2.3083801 3.3962414 4282331189
0.70149624 2.2893732 3.3929493 4282331189
0.6740458 2.3154283 3.3771918 4284503898
0.61975992 2.3333976 3.3446126 4282795852
0.95080727 2.2553651 3.5394998 4282795852
0.95556861 2.2580633 3.541018 4286478460
0.96001905 2.2484651 3.543071 4286875532
0.58795047 2.3322449 3.3219926 4283314473
0.66542959 2.2978191 3.3668137 4287136649
0.90163863 2.2673082 3.5063996 4288248411
0.60435355 2.3291793 3.3307197 4290687416
0.67967784 2.2846518 3.3739128 4284565833
0.6774351 2.3057516 3.3726912 4286147951
0.86051941 2.2721257 3.4802694 4283645761
0.82953018 2.2755232 3.4584446 4284697696
0.69401747 2.293714 3.3755116 4282923065
0.62701815 2.3270023 3.3360379 4284502348
0.62701815 2.3270023 3.3360379 4286542193
0.87034023 2.2677994 3.4779239 4286345591
0.69164008 2.2841353 3.3721445 4286410620
0.68603384 2.2910855 3.3677976 4286077771
0.50313687 2.3581147 3.2613466 4286348414
0.50313687 2.3581147 3.2613466 4286348414
0.71323425 2.2860823 3.3835127 4280032033
0.71323425 2.2860823 3.3835127 4286408779
0.89701241 2.2651145 3.4914477 4284173909
0.72732395 2.2830503 3.3898904 4284702823
0.73161411 2.2849574 3.3916643 4283775802
0.72803468 2.282104 3.3877738 4289111716
0.72803468 2.282104 3.3877738 4283120705
0.67746359 2.3144872 3.3575244 4285622120
0.80403632 2.2832396 3.429863 4288324797
0.67072541 2.31162 3.3498187 4289111716
0.71672904 2.2838631 3.3733256 4283383097
0.88892686 2.2663946 3.4727964 4283383097
0.7436142 2.2795076 3.3870218 4285423199
0.79417461 2.2788541 3.4162271 4285098604
0.9371562 2.260711 3.4989238 4289309097
0.94949538 2.2607853 3.504626 4283577657
0.94697797 2.2266078 3.5019004 4283577657
0.53431219 2.3505034 3.2636225 4286281338
0.60009754 2.3201911 3.2992535 4286281338
0.58072037 2.3340099 3.2864504 4284767072
0.65822762 2.3106408 3.3309176 4285426546
0.8671152 2.2659271 3.4514325 4285426546
0.86428052 2.266573 3.4492934 4285426546
0.66081411 2.299732 3.3315041 4285426546
0.80388516 2.273191 3.4125056 4284372304
0.6768465 2.2869551 3.3380961 4282534748
0.79203272 2.2775609 3.4046805 4285818984
0.94865423 2.2587605 3.4891961 4287606628
0.9542498 2.2520432 3.49141 4284243044
0.69949394 2.284327 3.343087 4285817705
0.69949394 2.284327 3.343087 4283455074
0.9483372 2.2397423 3.4827917 4285363845
0.74320751 2.2742705 3.3624718 4285626245
0.86848265 2.266583 3.4343841 4288783790
0.66989475 2.2958651 3.32038 4284110690
0.70216 2.2806935 3.3365228 4286607983
0.66581446 2.2908406 3.3148263 4283119408
0.9457131 2.2313633 3.4739583 4287460448
0.81016028 2.2681575 3.3966184 4287594627
0.66953379 2.2876549 3.3162353 4285360490
0.79732656 2.270988 3.3882418 4285492592
0.80174381 2.2739882 3.3867552 4283120703
0.5786106 2.3299434 3.2586374 4283324516
0.57460719 2.321173 3.2546964 4288778891
0.68031228 2.2797937 3.3072307 4284706685
0.58184361 2.3136215 3.2515438 4287468700
0.71190894 2.2759387 3.3240154 4280625201
0.71457285 2.2806172 3.3255594 4282003762
0.60650009 2.3013303 3.2643652 4282003762
0.7488699 2.2723467 3.342406 4280294953
0.85989994 2.2644954 3.4046164 4287673173
0.9245553 2.2382996 3.4399486 4286547345
0.88837892 2.2580547 3.4195113 4286807684
0.92645109 2.2397809 3.4405105 4287860362
0.63643849 2.2910669 3.276603 4285228393
0.79821903 2.268827 3.3670838 4287135608
0.6547547 2.2884076 3.2858801 4280558385
0.65414643 2.288161 3.2847965 4286941586
0.68835247 2.2792292 3.3034432 4289239954
0.55993491 2.3242099 3.2294145 4283718499
0.64429289 2.3035359 3.2751956 4283982186
0.81160325 2.2655735 3.3679881 4287590230
0.59116483 2.3217638 3.244503 4283839782
0.67328411 2.2825756 3.2877607 4282199341
0.69497114 2.2782605 3.2991943 4282396972
0.90640289 2.252641 3.4153721 4285624188
0.74091822 2.2704632 3.3225565 4286940046
0.5768469 2.3230457 3.2280295 4286671977
0.83752036 2.267411 3.371243 4286086016
0.84171617 2.2610605 3.3688698 4286872448
0.64203846 2.2984862 3.2580132 4281082410
0.64277166 2.2993009 3.2581716 4285555562
0.68732595 2.2739258 3.2772856 4281082410
0.57594657 2.3180914 3.2150936 4283779926
0.77624595 2.2647133 3.3225565 4284309605
0.70441788 2.2807798 3.2829883 4288977563
0.57704604 2.3152881 3.2131577 4288977563
0.7933901 2.2613177 3.3314567 4286279539
0.82135409 2.2592416 3.3460648 4287985503
0.7770521 2.2652571 3.3215542 4285752944
0.62311131 2.2963812 3.2365518 4286874245
0.91046679 2.2563584 3.3944602 4284960589
0.60194868 2.3048968 3.2236564 4283381559
0.64095151 2.2833741 3.2438393 4285032049
0.72165316 2.2717483 3.2869627 4285358956
0.72226453 2.2712975 3.2872014 4284899939
0.65061843 2.2785144 3.2420948 4283906102
0.9176448 2.2503457 3.3865809 4285423458
0.73878682 2.2677543 3.2881219 4285751396
0.68549943 2.2752783 3.2588656 4283581772
0.72565395 2.2717268 3.2806945 4283581772
0.59106272 2.3090217 3.2055366 4288785325
0.77153152 2.2614248 3.30251 4284237385
0.87056953 2.2579558 3.3548853 4287795607
0.71649206 2.2703388 3.2697926 4288389800
0.8230691 2.2598889 3.3270538 4282857274
0.66437858 2.2754982 3.2395322 4284372312
0.68959963 2.2709329 3.2513754 4285883752
0.65502477 2.2730205 3.2321663 4287795607
0.57689613 2.293932 3.1874962 4286739320
0.89975965 2.2210698 3.3605006 4285623149
0.56429154 2.3110371 3.1771004 4286411634
0.90540004 2.2466989 3.3601177 4284044643
0.87921703 2.251941 3.3447227 4285164148
0.69744271 2.2724111 3.2439382 4285164148
0.66482157 2.2683773 3.2247145 4287333266
0.75522882 2.2637773 3.2718771 4286348671
0.61749864 2.2974348 3.1981783 4283980390
0.62281799 2.2888501 3.1999767 4286480774
0.63418514 2.2817929 3.2049067 4285822080
0.90511405 2.2352889 3.3479578 4287531922
0.55591488 2.317224 3.1611011 4285427320
0.69946712 2.2682807 3.235287 4285096807
0.90113831 2.2467897 3.342859 4284770160
0.62868237 2.2749071 3.1959822 4286145895
0.85005021 2.2502384 3.3134329 4288521901
0.88324517 2.2408552 3.3292861 4287336334
0.72728246 2.2612324 3.2439055 4288850866
0.80967951 2.252151 3.286643 4286999142
0.69743192 2.2680514 3.2240479 4281018678
0.76169419 2.2618287 3.2579165 4285751649
0.66981608 2.2689466 3.2077746 4286282367
0.59725672 2.2970333 3.1678324 4285753456
0.61620432 2.2866759 3.177335 4285624687
0.8795796 2.2431028 3.3132851 4287074453
0.73198682 2.2615445 3.2339823 4287469726
0.42539167 2.326386 3.0727668 4287594377
0.42539167 2.326386 3.0727668 4284571749
0.68676835 2.265898 3.2096145 4284243313
0.6366958 2.2729461 3.1819623 4280362027
0.55783677 2.3117115 3.1410403 4283380519
0.66798484 2.2668452 3.1975379 4285885292
0.88788277 2.2273543 3.3106868 4286150784
0.71442097 2.2629089 3.2192008 4288649637
0.54596454 2.3040836 3.1303916 4287072145
0.43935633 2.3348718 3.0746341 4285822330
0.88477921 2.2381184 3.3069451 4284374883
0.69432014 2.2625957 3.2067935 4287267722
0.60266387 2.2925076 3.156075 4285426799
0.59475052 2.2958808 3.1510091 4284968818
0.88360399 2.2462668 3.2995052 4285495425
0.76101798 2.2530899 3.2340643 4284041799
0.72467476 2.259109 3.2134509 4283450699
0.62341106 2.2799666 3.1605685 4285228399
0.54779953 2.3083587 3.1200435 4287070856
0.61736035 2.2781599 3.1549797 4282725434
0.7945742 2.2496278 3.2467587 4282725434
0.53354686 2.3160264 3.11148 4285953143
0.54574198 2.3145859 3.1174529 4282792233
0.87555897 2.2392263 3.2833095 4285950821
0.89056683 2.2269335 3.2907515 4286611845
0.61109483 2.2871919 3.146275 4281345582
0.68107736 2.2624164 3.1789653 4285227369
0.77344215 2.25104 3.2242341 4282793531
0.65569776 2.2639449 3.1621647 4282725434
0.87806684 2.2195764 3.2750814 4286345850
0.77287591 2.2489321 3.2211006 4284503900
0.58758706 2.2834179 3.1245532 4287661700
0.87582701 2.223475 3.2716477 4283712583
0.66720814 2.2626028 3.1642387 4285292640
0.87999028 2.2253711 3.2727304 4285753965
0.7939924 2.2462196 3.2286768 4286217088
0.68534863 2.2620366 3.1651175 4288713876
0.8614735 2.2371643 3.2539718 4285752674
0.53770745 2.3069575 3.0877573 4287135616
0.77367324 2.2504117 3.2057593 4287268235
0.54575664 2.3046725 3.0897887 4288315244
0.47535458 2.3461151 3.0547564 4283841330
0.81952959 2.2428393 3.2276959 4285622120
0.41748905 2.3648958 3.0246496 4285029721
0.68007863 2.25668 3.1540365 4283843917
0.48309362 2.3254237 3.0534019 4283515202
0.76012099 2.2552297 3.1904624 4285358437
0.72900021 2.2463703 3.1735172 4286806140
0.76088172 2.2523601 3.1894445 4281870640
0.79068542 2.2419059 3.2043097 4284503387
0.47376981 2.3334162 3.0452893 4287594368
0.58101976 2.281203 3.0981584 4281409576
0.53027791 2.3087704 3.0726707 4287005061
0.78282344 2.2514405 3.1990521 4281409576
0.43629864 2.3590324 3.0256765 4286479234
0.45597014 2.3426969 3.0313482 4286873475
0.55428654 2.299752 3.0787811 4285031525
0.60365289 2.2745152 3.1021309 4283317306
0.69696832 2.2577472 3.1485002 4288059038
0.41742298 2.3649909 3.0098622 4282923064
0.83199072 2.2418382 3.2149212 4282729305
0.53793317 2.3008971 3.0677404 4287794320
0.51346087 2.3141243 3.0553298 4282398271
0.8335911 2.23981 3.2148988 4285756277
0.6737892 2.2562327 3.1313491 4283382830
0.81340325 2.2381577 3.1995883 4285295732
0.58579773 2.283689 3.0861452 4285885038
0.71860993 2.2529342 3.1520586 4285428090
0.50630051 2.3059833 3.0460145 4286082669
0.79417187 2.2377882 3.1887522 4286084478
0.47984064 2.3320229 3.0331244 4286214003
0.76005274 2.2418547 3.170784 4282987818
0.52999175 2.3068182 3.0568926 4287402137
0.69451427 2.256897 3.1379828 4285358688
0.53081453 2.3086815 3.0559611 4282989111
0.42892438 2.3581121 3.0050974 4285489502
0.47814491 2.3280847 3.0285685 4286607475
0.51516646 2.3063302 3.0386937 4286281855
0.81147271 2.2380769 3.1834042 4282396471
0.77309227 2.23965 3.1613085 4285554268
0.81243789 2.2316275 3.180335 4283384377
0.85151982 2.2317231 3.1977596 4286212447
0.51246011 2.3038311 3.030582 4284896338
0.59591997 2.2849588 3.0712411 4286476140
0.77147955 2.2413642 3.1537888 4287527797
0.62082404 2.2671928 3.0606422 4285688424
0.79872966 2.2477212 3.1444423 4286740598
0.87174541 2.2252417 3.1790662 4287396200
0.77062666 2.2431481 3.1299391 4284567625
0.6809141 2.252634 3.0856662 4281279780
0.75706416 2.2406247 3.1215971 4286414203
0.5602017 2.307632 3.0269406 4282328342
0.61119658 2.2824559 3.0505366 4285291872
0.82287985 2.2285459 3.1509006 4281935383
0.87414879 2.2278574 3.1756473 4281937458
0.58337635 2.2959089 3.0358582 4281212957
0.74449503 2.2441401 3.1113021 4285421385
0.74449503 2.2441401 3.1113021 4284565823
0.81273055 2.231369 3.1375866 4284569943
0.76431006 2.2440047 3.1139505 4285224784
0.81649727 2.229634 3.1365252 4286475108
0.6595307 2.2594371 3.0596578 4281277711
0.61761993 2.2923381 3.0372064 4284504150
0.6748054 2.2505381 3.0603311 4285357657
0.68547368 2.2465305 3.0639236 4282134831
0.86612058 2.2215097 3.1475027 4284763978
0.78509796 2.2320528 3.1076543 4285488991
0.82978159 2.2259817 3.128027 4284963410
0.70288843 2.2403474 3.0576169 4286409316
0.92200428 2.2164085 3.1594784 4284503888
0.88612002 2.2230301 3.1406128 4281801496
0.70436978 2.2545426 3.0520434 4283843129
0.7195673 2.2419796 3.0543866 4285357916
0.82259297 2.2235692 3.0980222 4285423198
0.83235848 2.2205703 3.1023834 4283254082
0.80739844 2.2268746 3.0901086 4284173896
0.74411011 2.236095 3.0559306 4284173896
0.74411011 2.236095 3.0559306 4286939268
0.56297231 2.3223519 2.9702947 4285621858
0.77835715 2.2267258 3.0665293 4286545280
0.77835715 2.2267258 3.0665293 4283054385
0.87377644 2.2159414 3.1094327 4282199852
0.65826476 2.275373 3.0108547 4282592292
0.55255222 2.3253186 2.9622631 4286605406
0.74434459 2.2300792 3.044364 4285488475
0.91005874 2.2098398 3.1199532 4283974725
0.94617695 2.2089057 3.1354895 4285625465
0.65719825 2.2773576 3.0043693 4285617994
0.73150992 2.2501259 3.0373316 4285290834
0.94350129 2.205754 3.1328921 4285620059
0.75762272 2.2464182 3.0466659 4283382578
0.68200117 2.2655008 3.0099955 4286276441
0.77822155 2.2234907 3.0524995 4284045144
0.91826117 2.2100692 3.1116848 4285561468
0.78324121 2.2274539 3.0490174 4284039738
0.74618858 2.2336893 3.0294716 4284829771
0.66080147 2.2813723 2.9923959 4284829771
0.8814494 2.2155607 3.0900488 4281407507
0.65911514 2.2800357 2.9906607 4284894788
0.75987923 2.2307494 3.0337598 4284894788
0.92568028 2.2008574 3.1069281 4285953395
0.78309965 2.2231128 3.0416882 4283646263
0.95834291 2.1959436 3.1184855 4281476897
0.94455028 2.1997747 3.1121633 4286277217
0.89410305 2.2085171 3.0887642 4286018934
0.8464554 2.2137036 3.0659492 4284041795
1.0014594 2.1957242 3.1348944 4284037672
0.98401231 2.2001328 3.1267328 4283318074
0.81059587 2.2155533 3.0488312 4283843388
0.76966208 2.2341259 3.0281386 4282197536
0.91474569 2.2004104 3.0919983 4283185459
0.60665542 2.3142858 2.9570723 4285030232
0.77372235 2.2456167 3.0288882 4285164400
0.77155244 2.230902 3.0269811 4285952365
0.79212517 2.2224202 3.035008 4283054132
1.0512044 2.1888456 3.1470101 4281736722
0.65199828 2.2887487 2.9712791 4284764752
0.90891278 2.2031956 3.0830138 4281211409
0.77290422 2.2459152 3.0203962 4282328871
0.77315438 2.2446194 3.02022 4285951344
1.006067 2.191649 3.120749 4285753967
1.0362701 2.1894014 3.1337752 4283909695
0.72066385 2.2765725 2.9960787 4284501580
0.98079103 2.1942267 3.1074593 4283321170
0.98079103 2.1942267 3.1074593 4286215537
1.0441556 2.1841516 3.13498 4283449658
0.79776603 2.2279968 3.0268211 4284634961
0.98414534 2.1935403 3.1067314 4284237119
0.66916293 2.2712817 2.9690266 4283251513
0.79803783 2.2410161 3.02496 4284375400
0.72204411 2.275769 2.9890442 4281605397
0.68673795 2.2678912 2.9729137 4282265386
0.93093616 2.1806059 3.0774858 4282922035
0.91198123 2.1994939 3.0692382 4287202181
0.69807333 2.2687988 2.975457 4283843638
0.80668241 2.2216966 3.0215263 4283118636
0.93175423 2.1946568 3.0739195 4285757312
0.79737663 2.2197409 3.0150132 4286081893
0.86419636 2.2015862 3.0430658 4286081893
0.93948972 2.1977532 3.0745595 4283778108
0.87051952 2.2054985 3.0442178 4283777588
0.81415939 2.2153511 3.0150197 4283314726
0.88954335 2.201653 3.0474648 4285555038
0.71705115 2.2625792 2.9701376 4285555038
0.82888079 2.2243581 3.0133567 4282461727
0.8541128 2.2095995 3.0209727 4282134061
1.0981585 2.1702838 3.1247807 4285291866
0.71220803 2.2680829 2.9599395 4283378980
1.0797545 2.1692359 3.1138573 4282199852
0.872796 2.201484 3.0234134 4284696118
0.8552863 2.2063675 3.0113387 4281540374
0.93041968 2.1918242 3.0430858 4284961357
0.93041968 2.1918242 3.0430858 4283651160
0.77042526 2.2489429 2.9761291 4281342479
0.95001477 2.1854806 3.0479343 4282529071
0.76239866 2.2489169 2.9690225 4285623401
0.86298865 2.2158563 3.0098827 4283054902
0.94825387 2.191236 3.0451591 4284962129
0.96038109 2.1884036 3.0498371 4285624430
0.80582047 2.2427838 2.9835384 4284962129
0.85398006 2.2200589 3.0007529 4281410336
0.86646044 2.2170172 3.0039446 4284173131
1.0419092 2.1734631 3.0768318 4281933071
0.77788389 2.2482574 2.9664505 4283383867
1.0090723 2.1794333 3.0616338 4285815896
0.66216397 2.2987909 2.9183147 4283976002
0.85233879 2.2239962 2.9947131 4282854951
0.88603753 2.1985364 3.0046191 4283184168
0.73593956 2.275501 2.9439268 4284106820
1.077132 2.1756358 3.0826228 4285751385
1.0113426 2.1806991 3.0513222 4285226597
1.1055379 2.1636643 3.0903258 4285226597
0.867589 2.2003741 2.9910965 4284369220
0.86222112 2.223639 2.9872887 4286742143
0.88462967 2.2064278 2.992775 4283708453
0.96670347 2.1838503 3.0262988 4283712315
0.90395546 2.1855774 2.9967265 4285031014
0.92892236 2.1824238 3.0051188 4285887348
0.80047244 2.2342396 2.9524348 4285094996
0.89784414 2.2003605 2.9899995 4281805348
0.92871779 2.1824231 3.0012207 4283318327
0.89479262 2.2093816 2.9873326 4283712316
1.1133778 2.1557181 3.065073 4283711543
1.1259446 2.1518035 3.0680029 4284239178
0.81267965 2.2431667 2.9417613 4282133802
1.0486678 2.168581 3.0344396 4285227872
0.92758226 2.1933045 2.9842753 4286211679
1.2323391 2.1263914 3.1051538 4283182887
0.90914983 2.2133701 2.9732609 4284632904
0.90181297 2.2132316 2.9679091 4286278507
0.83680266 2.2244875 2.9413254 4285028173
0.93434 2.1848316 2.97668 4282660654
1.1751299 2.1472983 3.0721176 4282266417
1.2355049 2.1296208 3.0959229 4282660654
1.2076085 2.1421552 3.0850103 4285361779
1.0677263 2.1646526 3.0288713 4285755766
1.1738113 2.1457248 3.0704131 4284178531
0.86745948 2.2246175 2.9479778 4283180833
0.8714363 2.2237844 2.9469006 4282134827
1.0993701 2.1612625 3.0365472 4283454549
1.195688 2.1427398 3.0730419 4282135081
0.80839568 2.2313042 2.9190121 4284897106
0.94216794 2.1834352 2.9711106 4283318074
1.1969475 2.1393743 3.0701005 4281803798
0.96459788 2.1743691 2.9754767 4284963930
1.0915591 2.1544895 3.0183115 4281936423
0.90845257 2.2168047 2.947027 4279506192
1.0757089 2.1611195 3.0111413 4282133548
1.2203288 2.1374226 3.0675213 4282396204
0.97500062 2.1729088 2.9704568 4283313186
0.9451676 2.2009902 2.9577453 4282659374
0.99525601 2.1701488 2.975173 4285094220
1.1924275 2.1364682 3.0517304 4279702288
1.1982979 2.1396255 3.0527408 4282987818
1.1661928 2.1376126 3.0376647 4284305228
1.167989 2.1381927 3.0383358 4285094220
0.8620916 2.2440755 2.9208179 4283976263
0.97809941 2.1735122 2.9627879 4284306000
0.93092918 2.2092693 2.9437847 4284830796
0.96202457 2.166256 2.9540963 4282001177
1.2559797 2.114938 3.0675702 4283842359
0.99095798 2.1654453 2.9628916 4282002727
0.91684371 2.2164366 2.9345939 4282922279
1.2379428 2.1322877 3.0575445 4286148210
1.1197172 2.1628273 3.012053 4284833115
0.8767665 2.2233407 2.917922 4283317557
1.0691961 2.1537442 2.9909098 4286151292
1.2643687 2.103451 3.0653901 4283120944
0.98083043 2.1921239 2.955585 4286347131
0.88746578 2.2277105 2.9202137 4282396720
1.0986506 2.1426642 2.999649 4284640114
1.2610396 2.1413953 3.0616817 4283384120
0.83397412 2.2503402 2.8971961 4283319355
1.1339442 2.1448355 3.0103002 4285164390
1.1397754 2.1458626 3.0110326 4285164390
0.94080687 2.2056568 2.9352815 4284432445
0.99287099 2.1755872 2.9536023 4282332727
1.1213051 2.1449814 3.0022297 4285291094
1.1488317 2.1294649 3.012275 4282595640
0.9075942 2.2138293 2.9202023 4279635206
0.90578419 2.2136219 2.9181366 4287137677
1.017164 2.1652496 2.9592187 4283449911
0.88544738 2.2324526 2.9098423 4284041532
0.86406159 2.2179837 2.900769 4285821041
1.0564609 2.1534586 2.9706745 4282000149
1.0044761 2.1653392 2.9477873 4285494908
1.2881142 2.0951693 3.0550926 4283519305
0.8937676 2.2377245 2.9033713 4285491549
0.97602755 2.2048314 2.929322 4282000149
1.020609 2.1811571 2.9415975 4285164138
1.03084 2.1557965 2.9428778 4284041532
1.0173081 2.1583178 2.937149 4282723365
1.1200349 2.1406283 2.9741187 4283519826
0.91480803 2.2236457 2.8988113 4283519826
1.1426399 2.1389623 2.9818356 4283120697
0.89854521 2.2244842 2.891747 4282332208
0.89854521 2.2244842 2.891747 4285822068
